ncols         80
nrows         80
xllcorner     190000
yllcorner     314000
cellsize      25
NODATA_value  -9999
86.21 85.02 84.57 84.64 84.27 84.16 84.13 83.55 82.91 82.9 83.03 83.09 83.16 83.35 83.4 83.45 84.14 84.62 84.55 83.89 83.72 82.84 83.54 83.76 84.39 87.91 88.99 92.74 94.15 93.59 97.01 99.08 100.86 102.35 104.59 105.59 106.65 108.7 110.08 110.83 110.76 113.99 118.74 120.98 123.26 125.36 127.46 129.07 130.73 132.96 134.13 134.96 134.9 134.36 133.94 134.14 135.33 136.73 140.55 145.89 149.33 152.03 154.1 156.06 157.42 158.65 158.86 161.83 163.42 164.76 165.98 167.06 167.82 168.34 168.38 168.27 168.46 169.26 170.2 170.88 
88.26 86.13 85.06 84.54 84.39 84.55 84.44 84.15 83 83.11 83.25 83.28 83.31 83.39 83.39 83.59 84.31 84.6 84.58 84.2 83.83 83.78 83.04 83.81 84.34 86.82 88.72 90.31 92.71 92.91 95.43 98.72 100.5 102.09 104.24 105.39 106.18 107.71 109.75 110.62 110.84 111.03 116.87 119.78 121.92 123.97 125.67 127.47 128.28 129.86 131.45 131.67 131.18 130.8 131.06 132.23 133.16 137.26 143.29 147 149.82 152.13 154.17 156.19 157.6 158.88 160.13 160.32 163.58 164.97 166.01 167.08 168.11 168.66 168.88 169.22 169.48 169.71 170.16 170.8 
91.35 88.42 86.49 85.45 84.57 84.7 84.74 84.58 83.63 83.24 83.43 83.44 83.65 84.03 83.61 83.48 83.89 84.55 84.64 84.51 83.83 83.93 83.34 83.62 84.45 86.73 89.04 89.76 91.17 92.55 94.68 97.7 100.09 101.76 103.32 105.2 105.75 107.04 108.89 110.4 110.9 110.87 112.45 118.4 120.67 122.58 124.26 125.7 126.76 127.09 127.66 127.74 127.71 128.12 129.24 129.76 133.15 139.67 143.9 147.29 149.72 151.87 153.89 155.75 157.3 158.78 160.15 161.12 162.19 163.83 164.94 166 167.25 168.09 168.73 169.16 169.37 169.61 170 170.5 
93.66 90.61 88.05 86.23 84.98 84.66 84.88 84.79 84.23 83.66 83.6 84.11 84.55 84.24 83.91 83.63 83.53 84.42 84.67 84.55 84.09 83.9 83.72 83.3 84.67 86.82 88.93 89.33 92.3 94.11 94.16 97.14 98.71 99.46 102.44 104.75 106 106.58 108.23 110.05 110.97 110.88 110.76 113.83 119.32 121.17 122.75 123.78 124.6 124.65 124.5 124.42 125.12 126.51 126.11 130.88 137.1 140.77 144.27 147.19 149.54 151.68 153.62 155.33 156.83 158.38 159.79 161.1 162.27 163.6 164.43 165.51 166.96 167.83 168.41 168.68 168.67 168.54 168.87 169.88 
94.82 92.29 89.63 86.75 85.32 84.79 84.95 84.68 84.58 84.2 83.96 83.87 83.87 83.86 84.11 83.34 83.46 84.05 84.51 84.5 84.32 83.95 83.95 83.07 84.66 86.72 93.23 89.71 93.28 94.42 94.31 94.64 96.11 99.01 101.64 104.22 105.45 105.99 107.41 109.14 110.85 110.73 111.13 110.92 115.98 119.58 120.88 121.65 121.85 121.9 121.97 122.32 123.49 124.18 128.81 135.85 138.37 141.33 144.26 146.79 149.09 151.05 152.86 154.52 156.06 157.67 159.29 160.36 161.43 162.85 163.58 164.23 165.33 166.56 167.44 167.64 167.3 166.83 167.33 168.53 
95.81 93.29 90.65 86.83 85.41 84.77 84.83 84.57 84.32 84.23 84.31 83.99 83.92 84.21 84.35 83.48 83.22 83.88 84.49 84.56 84.51 84.08 84.22 83.46 84.57 85.7 86.72 88.73 92.95 94.16 94.41 94.07 96.23 99.45 101.56 103.1 104.92 105.75 106.91 108.42 110.31 110.52 112.87 112.33 111.74 117.31 118.79 119.31 119.26 119.09 119.76 121.64 121.86 128.22 131.45 136.29 138.8 141.16 143.55 145.73 148.07 150.04 151.67 153.32 155.13 156.76 158.07 159.15 159.47 161.19 162.14 162.75 163.43 163.94 164.87 165.43 165.34 165.37 166.24 167.65 
96.18 93.47 90.95 86.97 85.62 84.78 84.42 84.27 84.13 84.51 84.6 84.32 84.05 84.19 84.11 83.97 83.75 84.32 84.47 84.59 84.59 84.38 84.39 84.42 84.95 85.45 86.72 87.55 90.4 93.32 93.67 94.27 95.11 99.61 100.87 102.47 104.04 105.28 106.87 107.7 109.14 110.06 112.35 114.32 111.74 113.01 116.79 116.83 116.7 117.1 118.95 119.21 125.03 129.36 131.99 134.63 139.13 140.44 142.15 144.33 146.63 148.56 150.55 152.48 154.03 155.33 156.64 157.65 157.46 157.48 159.56 160.97 161.09 161.58 162.33 162.06 161.02 161.05 161.97 163.43 
96.56 93.77 91.11 87.87 85.95 84.88 84.46 84.16 84.49 84.66 84.72 84.77 84.12 83.92 83.91 84.02 84.49 84.44 84.44 84.61 84.59 84.38 84.33 84.44 84.88 85.18 86.72 86.72 89.1 90.82 93.49 94.95 95.16 96.97 99.59 101.75 103.21 105.11 106.25 106.99 108.04 109.53 109.12 113.64 112.02 111.38 113.36 114.47 114.82 115.56 117 120.74 126.95 129.58 132.07 133.01 137.09 139.48 140.45 142.32 144.55 147 149.44 151.27 152.71 153.98 155.11 156.05 156.29 156.35 156.97 158 158.36 158.11 157.92 157.64 156.9 157.23 158.63 159.26 
97.5 95 92.47 89.09 86.57 85.16 84.67 84.59 84.7 85.01 85.24 84.97 84.47 83.91 83.9 84.27 84.89 84.48 84.47 84.49 84.42 84.51 84.5 84.45 84.8 85.65 85.82 85.82 89.54 89.14 92.22 95.07 95.87 95.4 97.46 101.16 102.85 104.43 105.96 106.63 107.45 108.54 108.75 109.18 110.18 110.44 111.14 112.97 114.45 116.57 120.58 123.11 126.08 129.3 131.42 132.7 133.69 136.8 138.44 140.01 142.52 145.52 148.15 150.14 151.71 152.67 153.56 154.27 154.39 154.52 154.37 154.37 153.42 153.39 153.53 153.39 152.76 153.42 155.77 157.8 
99.4 97.13 94.47 90.42 87.46 85.55 84.74 84.65 84.72 85.48 85.64 85.5 85.38 84.08 84.08 84.41 84.59 84.37 84.54 84.6 84.74 84.65 84.51 84.52 84.77 85.27 85.74 85.82 88.25 89.09 91 93.13 93.11 93.17 95.13 98.23 101.34 103.27 105.33 105.7 106.68 107.33 108.26 107.02 109.69 109.5 109.84 111.45 114.11 117.19 119.92 122.71 125.45 128.42 130.27 131.74 132.51 133.29 136.22 138.46 141.32 144.45 147 148.96 150.52 151.4 151.89 152.13 151.96 151.86 151.27 150 149.79 149.59 149.53 149.19 149 150.07 152.45 154.2 
102.03 99.64 96.73 92.18 88.19 86.17 84.95 84.91 84.76 85.29 85.69 85.75 85.6 84.58 84.24 84.23 84.48 84.55 84.48 84.31 84.56 84.8 84.64 84.51 84.91 85.06 85.66 85.82 89.81 87.78 90.13 91.37 91.13 92.09 93.73 95.01 98.09 102.31 104.07 104.26 105.46 105.72 106.01 105.39 107.41 109.37 109.88 110.48 112.11 115.44 119.83 123.1 124.33 126.88 128.79 129.41 129.28 131.37 133.73 137.86 140.53 143.27 145.5 147.56 149 149.82 150.14 150.21 149.71 148.49 147.05 146.2 145.63 145.52 145.61 145.41 145.21 146.32 148.54 149.99 
104 101.58 98.55 94.06 89.47 86.52 85.48 84.6 85 85.21 85.55 85.49 84.55 84.22 84.34 84.8 85.01 84.43 84.77 84.94 84.31 84.83 84.78 84.69 85.38 85.85 86.17 86.12 86.74 87.27 87.89 89.66 91.66 92.06 93.55 95.16 96.28 101.04 102.63 102.76 102.46 103.6 104.74 105.55 106.45 109.31 109.81 110.09 111.19 112.54 115.83 120.6 122.59 124.47 125.81 126.04 127.44 129.7 132.43 136.37 139.09 142.03 143.93 145.68 147 147.84 147.94 147.73 146.28 144.69 143.44 142.01 141.27 141.24 140.99 140.83 141.31 144.01 145.91 146.77 
105.99 102.85 99.72 95.68 91.34 86.81 85.59 84.5 85.2 85.47 85.26 84.67 84.3 84.3 84.4 84.71 85.02 84.69 84.43 84.57 85.02 84.82 85.19 85.87 86.26 86.1 86.19 86.27 86.32 87 88.22 90.82 92.26 92.58 93.79 95.24 96.65 98.36 99.83 101.07 102.19 103.47 103.99 104.01 104.84 108.26 109.7 110.02 110.27 112.83 113.15 116.03 120.32 122.08 122.88 125.18 126.54 128.95 131.96 135.24 138.05 140.12 142.34 143.62 144.82 145.4 145.65 144.11 142.76 141.12 139.31 137.79 136.9 136.53 136.03 136.09 137.81 140.5 141.68 141.71 
107.57 104.06 100.68 97.13 92.75 86.97 85.47 84.73 84.7 84.78 84.71 84.91 84.28 84.47 84.53 84.63 84.88 84.94 84.97 85.12 85.07 84.94 85.09 85.75 85.14 85.47 85.58 85.56 85.82 86.4 87.89 89.91 92.43 92.97 94.1 97.15 98.18 97.96 99.81 101.37 101.84 101.98 101.97 102.9 104.28 107.02 109.47 109.82 109.98 110.86 115.69 114.04 115.84 120.1 120.95 123.13 126 128.69 131.33 133.55 136.17 137.56 140.39 141.8 142.57 142.85 141.78 140.88 139.25 137.17 135.21 133.78 133.07 133 132.28 132.57 134.44 136.02 136.61 136.5 
108.25 104.78 101.72 98.6 93.38 87 85.56 84.94 84.74 84.61 85.56 85.56 84.79 84.52 84.58 84.71 84.88 84.85 84.91 84.82 84.87 84.62 85.13 85.59 84.74 85.02 85 85.23 85.5 86.07 87.07 88.55 91.09 92.32 94.68 96.7 97.58 97.63 98.49 100.45 100.7 100.58 101.18 102.24 104.14 106.61 109.13 109.7 109.76 110.83 114.53 116.2 114.34 114.43 119.18 121.98 125.89 127.96 130.18 132.54 134.59 136.08 137.5 139.13 140.25 139.49 138.54 137.52 135.63 133.39 131.55 130.17 129.62 129.35 129.07 129.62 131.06 132.17 133.05 133.79 
110.71 106.88 103.72 100.29 93.82 87.68 85.73 85.27 84.63 84.79 85.73 85.41 85.04 84.99 84.81 84.74 84.64 84.55 84.69 84.72 84.76 84.62 85.27 85.34 84.79 84.95 84.96 84.9 85.04 85.63 86.74 87.72 89.76 92.09 94.04 95.7 96.78 96.74 97.45 98.74 99.04 99.58 100.7 102.09 104.39 106.56 108.83 109.8 110.49 112.4 113.68 114.63 115.33 115.01 113.56 118.33 124.28 127.68 129.34 131.41 132.79 133.73 133.95 131.96 133.54 135.33 135.24 134.04 132.16 130.01 128.29 127.16 126.88 127.24 127.56 128.34 129.6 131.03 132.47 133.87 
114.2 110.17 106.57 102.95 95.9 88.48 85.93 85.48 84.71 84.85 85.64 85.02 84.83 85.08 85.37 84.63 84.62 84.62 84.72 84.74 84.71 84.75 85.44 85.06 84.94 84.92 84.92 84.99 84.94 85.46 86.66 87.83 89.41 91.06 92.7 94.24 95.58 96.14 96.11 97.6 98.01 99.23 100.92 102.43 104.2 106.01 107.97 109.38 110.04 111.14 111.98 112.81 113.98 115.93 116.85 114.05 116.2 123.68 128.29 129.87 131.04 131.66 131.34 131.39 132.09 132.61 132.02 130.56 128.79 126.89 125.42 124.81 124.83 125.68 127.33 128.7 130.14 131.9 133.73 135.55 
118.1 114.58 110.32 105.96 99.05 90.14 86.54 85.69 85.01 86.03 85.45 84.95 84.89 84.76 85.27 84.78 84.68 84.73 84.8 84.78 84.81 84.81 85.55 84.88 85.05 85.08 85.07 85.08 85.25 85.74 86.53 87.73 88.61 89.41 91.01 92.56 93.75 95.03 95.64 97.17 98.49 99.2 101.14 102.38 103.75 105.33 106.61 107.76 108.81 109.55 110.57 111.81 113.4 115.53 118.12 119.83 116.3 114.34 119.5 126.2 129.08 129.85 130.35 130.43 130.41 129.9 128.75 127.02 125.37 124.04 123.14 123.57 125.57 127.95 129.29 130.71 132.08 133.77 136.11 138.75 
122.6 117.84 113.98 109.54 103.1 93.18 88.13 86.93 86.03 86.63 85.52 85.05 84.91 84.65 84.59 84.67 84.8 84.81 84.85 84.86 84.88 84.89 85.78 84.88 85.13 85.17 85.25 85.26 85.35 85.76 86.24 87.09 87.95 88.43 89.31 90.72 91.75 93.42 95.27 96.6 98.5 99.14 100.92 102.09 103.01 104.12 105.13 106.17 107.52 108.86 110.12 111.54 113.39 115.53 117.76 119.77 121.47 119.74 115.03 115.52 121.91 127.16 128.2 128.06 127.58 126.89 125.65 123.39 122.04 121.25 121.63 125.33 128.44 130.63 132.33 133.63 135.03 137.48 139.49 140.89 
126.99 121.75 116.81 113.22 107.87 98.65 91.49 88.5 87.22 87.05 85.73 85.78 85.05 84.73 84.81 84.77 84.82 84.87 84.9 84.93 84.98 85.05 85.7 84.84 84.89 85.01 85.29 85.27 85.31 85.54 86 86.59 87.38 88.13 88.79 89.56 90.6 92.17 94.16 96.15 97.9 99.14 100.4 101.9 102.41 103.15 104.08 105.31 106.84 108.57 110.06 111.62 113.36 115.14 116.86 118.52 120.06 121.49 121.72 118.48 114.7 116.91 122.4 125.34 124.94 123.54 121.36 120.12 119.2 119.88 123.11 126.96 130.69 133.31 134.76 136.3 138.28 139.4 140.7 141.97 
129.63 124.1 119.07 114.73 110.77 105.23 98.16 92.59 88.37 87.34 86.2 85.8 85.02 84.9 84.91 84.84 84.93 85.02 85 85.21 85.21 85.33 85.69 84.84 84.98 85.15 85.07 85.26 85.4 85.7 85.96 86.32 86.84 87.84 88.59 89.16 89.6 91.14 93.39 95.81 96.55 98.29 99.32 101.58 102.25 102.73 103.63 105.08 106.65 108.3 110.03 111.52 112.92 114.4 115.85 117.23 118.59 119.96 120.81 121.56 121.28 117.8 115.05 116.93 119.12 118.47 117.93 117.37 117.81 120.44 124.33 129.15 132.38 134.1 135.67 137.24 138.44 139.49 140.71 141.85 
127.77 122.86 118.91 114.94 111.32 107.94 104.11 99.02 92.36 88.12 86.35 85.96 85.5 85.15 85 85.03 85.05 85.14 85.22 85.34 85.31 85.54 85.69 85 85.02 85.11 85.22 84.75 85.33 85.46 85.78 86.01 86.43 87.2 87.94 88.65 89.12 90.18 92.09 93.79 95.21 96.81 98.44 100.37 101.87 102.32 103.62 105.09 106.43 107.75 109.63 111.09 112.28 113.48 114.71 115.95 117.21 118.37 118.94 119 119.58 120.23 118.98 116.42 114.86 114.84 115.85 116.17 118.29 121.94 126.81 130.24 132.27 133.96 134.85 135.98 137.74 138.78 139.36 139.4 
124.93 121.27 117.9 114.45 110.52 107.44 104.23 99.39 93.67 89.38 86.82 86.25 85.65 85.33 84.99 85.07 85.16 85.21 85.31 85.37 85.35 85.82 86.09 85.75 85.32 85.31 85.43 85.28 85.09 85.04 85.51 85.8 86.18 86.72 87.62 88.16 89.05 89.67 91.1 92.54 94.25 95.9 97.66 99.73 101.5 102.42 103.56 104.92 106.28 107.21 108.95 110.4 111.36 112.3 113.48 114.68 115.75 116.58 116.92 116.57 116.51 116.11 115.28 114.59 114.24 114 114.41 115.29 117.18 121.97 127.33 130.08 131.9 133.16 133.83 134.2 135.14 136.37 136.05 135.69 
122.28 119.26 115.88 111.7 108.81 105.78 101.88 96.56 92.35 89.76 87.41 86.35 85.7 85.35 85.25 85.13 85.2 85.33 85.46 85.33 85.46 85.97 86.37 86.01 85.79 85.54 85.62 85.58 85.44 85.26 85.51 85.8 86.09 86.47 86.93 87.38 87.96 88.68 90.34 91.85 93.75 95.55 96.82 99.09 101.07 102.55 103.38 104.49 105.59 106.42 107.79 109.39 110.34 111.23 112.24 113.19 114.02 114.45 114.67 114.34 113.23 112.52 112.31 112.28 112.62 113.14 114.62 117.43 117.67 115.5 116.6 121.16 126.95 131.1 132.64 132.44 132.64 133.3 133.29 131.01 
119.49 115.76 112 109.1 106.27 103.03 98.3 93.26 91.71 89.46 87.54 86.5 85.64 85.32 85.19 85.22 85.28 85.3 85.44 85.41 85.58 86.22 85.99 85.82 85.62 85.52 85.46 85.52 85.62 85.28 85.52 85.74 85.97 86.31 86.9 87.41 87.26 87.69 89.47 90.9 92.95 95.02 96.66 97.68 100.34 101.94 103.06 103.71 104.55 105.54 106.87 108.31 109.38 109.99 110.72 111.43 111.81 111.87 111.72 110.97 110.3 110.28 110.65 111.29 112.07 112.98 115.43 119.8 123.19 123.85 120.56 116.41 115.56 118.72 124.04 125.23 128.39 128.89 127.93 127.87 
114.96 111.83 108.44 105.55 102.93 99.07 95.18 93.58 92.25 89.33 87.7 86.36 85.69 85.34 85.3 85.25 85.29 85.37 85.44 85.42 85.64 86.25 85.6 85.94 86.03 85.96 85.71 85.58 85.45 85.48 85.51 85.78 86.41 86.82 87.24 87.26 87.45 87.58 88.23 90.02 92 93.95 96.04 97.65 98.18 101.09 102.45 103.23 103.8 104.82 105.89 106.95 108.05 108.36 108.54 108.84 109.02 109.06 108.76 108.45 108.45 108.73 109.28 110.8 112.31 113.59 117.26 120.56 122.76 124.48 125.5 125.19 122.38 118.04 115.94 117.14 120.61 124.89 125.63 124.32 
111.46 108.15 104.68 101.16 99.5 98.66 98.67 99.39 97.25 89.89 87.36 86.17 85.72 85.43 85.26 85.32 85.32 85.4 85.48 85.51 85.59 86.37 85.61 85.69 85.86 86.1 85.84 85.82 85.71 85.61 85.65 85.77 86 87.15 87.44 88.04 87.76 87.79 88 89.02 91.03 93.28 95.45 97.22 97.67 99.35 101.3 102.63 102.98 103.79 104.79 105.49 106.37 106.22 105.91 106.02 106.35 106.43 106.82 106.83 107.08 108.09 109.76 111.79 113.9 116.15 118.13 120.04 121.66 122.79 123.6 124.18 124.58 123.45 122.14 119.63 116.24 115.62 118.33 120.21 
107.37 103.95 102.71 103.51 103.53 103.46 104.33 104.57 102.4 95.18 87.34 86.16 85.66 85.39 85.39 85.47 85.55 85.5 85.52 85.55 85.73 86.41 85.87 86.01 85.63 86.07 85.89 85.89 85.78 85.75 85.87 85.89 85.54 86.26 86.51 86.97 87.59 87.83 88.06 88.91 90.89 92.8 94.65 96.79 97.54 98.07 100.12 101.5 102.03 102.59 103.43 103.5 103.81 103.83 104 104.12 104.32 104.75 105.37 106.01 107.41 109.37 111.57 113.56 115.1 116.49 117.77 118.82 119.8 120.61 121.48 120.55 120.15 121.32 121.43 120.9 119.87 117.96 115.69 114.83 
107.12 107.18 106.61 106.74 108.17 110.2 110.53 108.9 106.02 99.84 88.23 85.92 85.58 85.5 85.48 85.54 85.52 85.69 85.8 85.78 86.06 86.38 85.92 86.08 85.71 86.13 85.97 85.95 85.81 85.87 85.94 86.11 85.78 85.18 87.04 86.83 87.68 88.13 88.17 88.64 90.58 92.45 94.2 96.09 97.14 97.4 99.14 100.09 100.85 100.91 101.58 101.2 101.55 101.91 102.43 103.1 103.38 104.01 105.26 106.76 108.8 110.99 112.67 113.79 114.59 115.34 116.3 117 117.6 117.13 116.7 118.16 118.82 118.6 118.04 117.42 116.38 114.75 112.92 110.84 
110.08 110.52 111.49 112.85 115.02 116.69 117.44 113.37 107.9 101.23 91.07 86.37 85.61 85.55 85.59 85.68 85.78 85.91 85.84 85.98 86.58 86.25 86.07 86.22 85.98 85.68 86.1 86 85.96 86.05 86.1 86.18 86.5 85.24 86.29 87.62 87.75 88.1 88.17 88.4 90.16 92.38 93.61 95.17 96.43 97.12 98.31 98.66 99.49 99.79 100.84 100.22 100.61 101.11 101.6 102.26 103.18 104.15 105.85 108.1 110.13 111.52 112.36 112.89 113.35 113.7 113.99 113.39 113.65 115.28 116.02 115.97 115.32 114.47 113.84 113.22 111.67 109.42 106.83 104.03 
115.01 116.22 117.85 120.05 121.89 123.94 123.27 117.7 110.42 103.64 94.68 88.56 86.5 85.93 85.79 85.78 85.9 85.9 85.95 86.12 86.88 86.29 86.28 86.1 85.81 86.16 86.1 86.16 86.18 86.21 86.32 86.3 86.31 86.77 87.06 87.65 87.93 87.81 88.09 88.34 90.05 92.37 93.47 94.79 95.82 96.56 97.27 97.32 97.98 99.35 100.63 100.13 100.28 100.79 101.7 103.33 104.95 105.16 106.57 108.72 110.24 111.02 111.46 111.71 111.84 111.06 110.52 111.74 112.66 113.17 113.36 113.06 111.5 109.07 107.73 107.42 106.09 103.67 101.58 99.93 
120 122.02 124.98 127.82 130.29 131.33 128.14 120.47 112.49 105.76 99.59 93.11 89.67 88.46 87.3 86.31 85.95 85.97 86.16 86.47 87.06 86.3 86.37 85.93 86.44 86.31 86.09 86.11 86.25 86.32 86.44 86.52 86.38 86.51 87.33 87.61 87.73 87.53 87.94 88.52 90.16 92.52 93.54 94.64 95.26 95.74 96.85 97.11 97.38 98.57 99.71 100.5 100.33 101.5 103.03 104.44 105.75 106.7 107.42 108.66 109.59 110.03 110.32 109.59 108.62 108.6 109.1 109.68 110.07 110.27 110.24 109.37 106.24 102.46 101.03 101.25 101.29 99.92 98.64 97.79 
126.68 129.05 132.61 136.08 138.16 137.45 131.87 122.49 114.46 107.84 103.24 98.45 94.41 91.83 90.13 88.26 86.62 86.17 86.6 87.04 87.21 86.47 86.42 86.34 86.02 86.56 86.39 86.37 86.28 86.44 86.56 86.68 86.64 86.54 86.79 87.05 87.08 87.5 88.08 88.72 90.06 92.29 93.32 94.12 94.65 95.13 96.18 96.98 96.98 97.67 99.25 100.8 100.89 102.09 103.3 104.47 105.57 106.62 107.26 107.84 108.38 108.24 107.12 106.81 106.54 106.42 106.72 107.28 107.4 107.27 106.78 104.69 101 98.55 97.86 97.52 97.81 97.67 97.09 96.2 
133.56 136.03 140.12 143.47 144.54 142.19 134.9 125 116.71 110.69 105.53 101.48 98.35 95.92 93.38 89.74 87.25 86.44 86.87 87.1 87.28 86.53 86.51 86.39 85.8 86.68 86.73 86.71 86.44 86.47 86.73 86.83 86.81 86.77 86.74 87.01 87.25 87.55 88.02 88.73 89.48 91.51 92.88 93.81 94.63 95.47 96.41 96.82 97.12 97.85 99.19 100.06 100.89 102.02 103.09 104.02 104.81 105.52 106.01 105.88 105.88 105.69 106.16 105.16 104.21 104.06 104.32 104.59 104.22 103.71 102.63 100.31 97.78 96.75 96.48 96.15 95.95 95.31 94.57 94.35 
140.71 142.73 146.6 149.31 149.1 145.64 137.66 127.43 119.16 113.27 107.71 104.14 101.03 98.39 95.81 91.36 87.85 86.59 86.48 87.09 87.3 86.52 86.65 86.2 86.36 85.94 86.1 86.24 86.59 86.38 86.7 86.64 86.8 86.84 86.87 87.07 87.26 87.53 88.17 88.94 89.6 90.6 91.91 93.24 94.83 95.44 95.9 96.27 96.77 98.19 99.35 99.91 100.7 101.61 102.46 103.19 103.79 104.26 104.41 103.87 105 105.24 104.56 103.11 102 101.86 101.84 101.65 100.68 99.79 98.66 97.19 96.14 95.66 94.8 94.21 94.07 93.95 94.12 94.43 
148.6 148.67 150.81 152.46 151.88 148.19 140.24 130.17 121.52 115.29 110.42 106.39 102.88 100.21 97.6 92.77 88.63 87.06 86.8 87.46 87.15 86.55 86.75 86.88 86.17 85.84 86.91 86.21 86.75 86.54 86.5 86.58 86.74 86.89 87.03 87.08 87.25 87.66 88.3 88.98 89.6 90.4 91.57 93.11 94.32 94.93 95.47 95.93 96.06 97.98 99.22 99.71 100.23 100.96 101.64 102.28 102.67 102.79 102.77 103.74 103.87 103.59 102.81 101.33 99.89 99.35 99.34 98.65 97.56 96.83 96.24 95.57 94.47 93.67 93.66 93.84 93.8 94.01 94.32 94.64 
154.32 154.1 154.66 154.85 153.6 149.87 141.92 132.47 123.97 117.45 112.42 108.3 105.09 101.3 98.68 94.92 89.86 87.26 87.01 87.49 87.21 86.74 86.85 87.2 86.83 86.73 86.77 85.91 86.87 86.87 86.81 86.67 86.77 86.97 87.08 87.06 87.22 87.65 88.14 88.6 89.25 90.05 91.16 92.67 93.56 94.44 95.15 95.85 95.86 96.75 99.09 99.39 99.9 100.21 100.9 101.18 101.22 101.58 102.16 102.31 102.33 102.01 101.01 99.49 98.24 97.64 96.88 95.93 95.16 94.87 94.21 93.41 93.15 93.38 93.71 93.97 93.76 94.08 94.33 93.97 
157.69 158.07 158.04 156.42 155.42 151.8 144.29 135.06 126.85 119.89 114.75 110.14 106.57 103.07 99.93 97.17 92.2 87.73 87.21 87.55 87.06 86.85 86.91 87.27 86.49 86.35 86.16 86.76 87.05 87.05 87.01 86.91 86.9 87.03 87.08 87.13 87.26 87.59 87.94 88.43 88.97 89.74 90.61 91.55 92.55 93.31 93.97 94.84 95.73 95.86 98.32 99.01 99.35 99.43 99.91 99.95 99.99 100.57 100.64 100.69 100.55 99.91 98.66 97.51 96.75 95.94 94.2 93.01 92.82 92.86 92.93 92.98 93.14 93.45 93.66 93.41 93.44 93.51 93.46 93.81 
158.91 159.14 159.3 158.33 156.89 153.52 146.6 137.55 129.76 122.95 117.69 112.55 108.18 105.17 101.49 99.27 92.35 88.58 87.72 87.75 87.03 86.92 86.99 87.28 86.5 87.11 86.34 87.35 87.36 87.39 87.17 87.06 87.06 87.24 87.21 87.28 87.42 87.64 87.91 88.31 88.71 89.09 89.55 89.96 90.57 91.2 92.08 93.16 94.01 95.21 97.42 98.32 98.77 98.72 99.08 99.07 98.93 98.96 99.04 98.75 98.25 97.38 96.42 95.82 95.08 93.77 92.62 92.31 92.31 92.61 92.74 92.94 93 92.75 92.37 92.68 93.77 94.78 95.85 94.35 
159.83 159.9 160.05 159.38 157.97 155.19 150.06 142.14 134.23 126.52 120.49 115.07 110.27 107.2 103.81 100.72 90.53 88.59 88.21 88.01 87.05 87.06 87.12 87.27 86.98 86.91 87.28 87.11 87.29 87.21 87.49 87.29 87.25 87.47 87.46 87.44 87.58 87.63 87.78 87.98 88.27 88.58 88.9 89.08 89.14 89.3 90.19 91.85 93.39 94.39 96.14 97.17 97.63 97.58 98.05 98.03 97.6 97.3 97.18 96.63 96.16 95.55 94.47 93.35 92.64 92.58 92.27 92.08 92.05 92.38 92.63 92.85 92.51 93.33 93.61 93.36 94.61 96.96 98.22 99.12 
160.3 160.27 160.3 159.67 158.75 156.83 153.41 147.14 138.79 130.04 123.63 118.11 113.31 109.49 106.9 103.77 92.55 88.96 88.84 88.26 87.16 87.2 87.19 87.27 87.31 87.37 86.9 86.84 87.63 87.57 87.38 87.49 87.6 87.66 87.58 87.54 87.57 87.67 87.8 87.95 88.12 88.34 88.53 88.66 88.82 89.11 89.76 90.89 92.47 93.53 94.96 95.76 96.48 96.74 96.93 96.59 96.05 95.56 95.4 94.87 93.94 92.84 92.32 92.09 92.09 92.09 92.06 92.02 91.92 92.24 92.47 92.84 92.68 93.31 93.57 94.44 96.46 98.43 99.58 100.29 
160.53 160.31 160.28 159.53 158.8 157.92 155.39 151.18 143.28 135.03 127.95 122.65 117.31 112.54 109.59 107.45 97.79 89.5 89.13 88.45 87.36 87.35 87.31 87.31 87.39 87.5 87.48 87.51 87.65 87.7 87.77 87.07 87.47 87.71 87.58 87.56 87.55 87.71 87.79 87.89 88.09 88.28 88.42 88.56 88.68 88.95 89.43 90.3 91.98 93.13 93.98 95.21 96.06 96.05 95.23 95.42 94.8 94.12 93.09 92.24 91.83 91.67 91.68 91.69 91.82 91.88 92.12 92.12 92.02 92.2 92.22 92.31 92.87 93.68 94.49 96.33 98.28 99.83 100.8 101.31 
160.66 160.26 160.07 159.99 158.98 158.52 156.79 154.07 148.99 142.12 134.27 126.93 121.37 116.38 112.64 110.16 105.38 92.74 89.45 88.79 87.69 87.6 87.59 87.46 87.45 87.56 87.56 87.44 87.64 87.61 87.78 86.63 87.57 87.66 87.57 87.57 87.59 87.75 87.79 87.89 88.05 88.2 88.3 88.47 88.58 88.8 89.03 89.78 91.61 92.01 92.71 93.52 94.68 94.36 93.49 94.34 92.69 92.05 91.59 91.42 91.3 91.35 91.41 91.53 91.6 91.92 92.05 92.11 92.2 91.4 91.79 93.17 95.25 96.72 96.89 98.19 99.95 100.94 101.74 103.32 
160.48 159.99 159.77 159.63 159.45 158.67 157.68 155.8 153.09 147.78 140.9 132.41 125.51 120.7 116.76 112.9 110.21 99.97 90.46 89.32 88.18 87.87 87.72 87.47 87.52 87.55 87.57 87.67 87.59 87.67 86.97 87.22 87.8 87.74 87.67 87.65 87.65 87.67 87.68 87.8 87.92 88.11 88.25 88.44 88.65 88.84 88.94 89.66 91.09 90.69 92.24 92.5 92.88 92.4 92.01 93.02 91.59 91.17 91.38 91.41 91.05 91.1 91.21 91.36 91.53 91.8 92.02 92.06 92.03 92.03 93.09 94.95 97.59 98.4 99.06 100.13 101.17 102.26 103.93 104.69 
159.89 159.35 159.1 158.94 158.64 157.92 157.25 156.29 154.43 150.71 145.31 138.97 131.49 126.13 121.48 116.8 112.7 108.28 94.89 90.23 88.44 88.1 87.96 87.86 87.75 87.65 87.65 87.91 87.77 87.89 87.29 87.89 87.8 87.89 87.74 87.71 87.69 87.7 87.81 87.93 88.02 88.23 88.35 88.55 88.85 89.13 89.33 90.37 90.28 89.9 90.47 90.45 90.41 90.71 91.12 91.4 92.07 90.93 91.22 91.39 91.03 90.83 91.18 91.41 91.62 91.79 91.99 91.74 91.71 93.02 96.14 97.45 98.38 99.26 100.06 101.05 102.81 103.89 104.57 105.33 
158.78 157.99 157.91 157.68 157.03 156.68 155.83 155.23 154.23 151.78 147.52 142.54 136.82 131.06 125.87 120.55 115.59 111.2 103.93 91.77 89 88.69 88.49 88.34 88.08 87.97 87.96 88.02 87.89 88.06 87.36 87.85 87.96 87.82 87.86 87.82 87.81 87.83 87.97 88.12 88.22 88.31 88.46 88.67 88.85 89.2 89.47 90.45 89.39 89.42 89.68 90.06 89.86 90.29 90.95 90.84 91.25 90.88 91.33 91.59 91.34 90.79 91.23 91.46 91.67 91.67 91.34 92.02 95.44 96.76 97.87 98.48 99.09 99.87 101.2 102.8 103.7 104.26 105.17 106.22 
157.34 155.81 155.36 155.15 154.91 153.85 152.87 152.22 151.34 150.09 147.06 143.08 138.2 132.86 128.13 122.94 117.81 112.66 109.05 97.65 90.62 89.21 89.11 89.03 88.72 88.48 88.28 88.25 87.97 88.02 88.19 87.09 88.05 87.85 88 87.99 87.95 87.99 88.16 88.27 88.38 88.47 88.63 88.92 89.1 89.36 89.39 89.83 89.13 89.46 89.81 89.99 90.18 90.2 90.74 90.63 91.05 91.1 91.52 91.51 91.3 90.56 90.9 91.3 91.19 91.78 95.06 97.11 97.78 99.03 99.6 99.69 100.2 101.7 102.65 103.18 104.11 104.8 105.86 107.1 
156.08 153.32 151.44 151.16 150.6 149.87 148.73 147.76 146.81 145.65 143.62 140.56 136.51 132.01 127.6 121.99 117.59 113.26 109.41 104.54 93.61 90.25 89.95 89.54 89.23 89.04 88.7 88.53 87.98 88 88.13 87.56 87.64 87.8 88.09 88.18 88.07 88.11 88.24 88.38 88.52 88.73 89.04 89.28 89.4 89.59 89.86 89.91 89.79 89.49 89.41 89.73 89.75 89.99 90.5 90.58 90.17 91.3 91.21 91.04 90.6 90.77 91.55 92.13 94.69 96.6 97.52 98.88 99.72 100.29 100.27 101.14 102.64 102.85 103.17 103.77 104.72 105.63 106.57 107.69 
154.55 151.17 147.67 145.28 145.11 144.79 143.33 141.92 141.07 140.03 138.34 135.79 132.57 128.75 124.68 119.64 115.5 112.36 109.04 106.14 98.44 92.2 90.99 90.34 90.04 89.9 89.56 88.91 88.23 87.99 88.08 87.84 87.42 87.82 87.99 88.15 88.19 88.28 88.45 88.59 88.77 89.07 89.24 89.22 89.24 89.23 89.55 89.79 89.76 89.49 89.27 89.35 89.33 90.09 90.11 90.56 90.21 90.71 90.67 90.09 91.46 93.9 95.56 96.47 97.38 98.48 99.38 100 100.52 100.81 100.87 102.51 103.4 103.68 104.21 104.92 105.65 106.65 107.51 108.48 
152.1 149.17 144.78 140.79 138.97 138.31 136.58 135.2 134.67 133.9 132.29 130.11 127.42 124.36 120.52 116.69 113.52 110.71 108.13 105.44 101.19 94.4 92.59 91.58 90.67 89.79 89.22 88.82 88.41 88.12 88.18 88.27 87.36 88.01 87.97 88.26 88.28 88.43 88.58 88.62 88.77 88.94 89.02 89.09 89.15 88.94 89.64 89.7 89.67 89.77 89.77 89.87 90.14 90.21 90.23 90.41 90.44 90.4 89.95 91.59 94.35 96.12 97.27 98.19 98.59 99.19 99.75 100.21 100.85 102.01 101.45 102.65 103.81 104.37 104.92 105.66 106.4 107.38 108.18 109.03 
148.59 145.22 141.17 136.4 133.62 132.59 130.85 129.38 127.97 126.24 125.54 124.02 121.65 118.99 116.3 113.56 111.01 108.75 106.76 104.16 100.13 95.54 92.8 91.32 90.22 89.56 89.12 88.77 88.45 88.26 88.29 88.27 87.21 88.13 88.02 88.05 88.33 88.35 88.4 88.6 88.72 88.86 88.87 88.91 88.84 89.14 89.28 89.59 89.44 89.64 89.77 89.84 90.03 90.19 90.26 90.15 90.02 90.54 91.87 94.8 96.05 97.07 97.94 98.39 98.7 99.1 99.49 100.27 101.51 102.18 102.21 102.69 103.9 104.72 105.18 105.88 106.7 107.6 108.54 109.34 
143.87 140.22 136.5 133.04 129.73 127.31 125.55 123.7 122.3 121.19 120.07 118.8 116.86 114.91 112.71 110.34 107.63 105.07 101.48 99.07 97.7 96.44 92.8 91.04 90.1 89.35 88.99 88.63 88.47 88.36 88.3 88.29 87.6 88 88.08 88.23 88.32 88.4 88.53 88.45 88.71 88.89 88.68 88.72 89.2 89.09 89.19 89.55 89.3 89.4 89.56 89.72 89.93 90.11 89.85 89.38 91.03 91.96 92.82 94.24 96.04 97.22 97.91 98.15 97.9 98.44 100.11 101.18 101.87 102.53 102.76 103.2 103.82 104.71 105.4 106.02 106.73 107.53 108.62 109.33 
139.04 135.72 132.56 129.24 126.05 123.73 122.45 120.72 119.07 117.69 115.3 112.42 111.11 109.88 107.9 104.88 103.69 101.05 99.93 100.01 99.27 97.9 93.66 90.69 89.99 89.45 89.02 88.58 88.38 88.3 88.23 88.28 87.79 88.14 88.17 88.35 88.49 88.4 88.42 88.67 88.55 88.82 88.69 88.94 89.16 89.14 89.16 89.5 89.28 89.39 89.45 89.61 89.65 89.58 89.16 90.35 91.4 91.99 92.83 93.6 94.55 95.79 96.48 97.07 98.02 98.79 100.3 101.11 101.83 102.43 102.89 103.63 104.02 104.4 104.73 105.39 106.14 106.71 107.62 108.04 
134.78 131.36 128.33 126.09 123.73 121.74 120.27 117.77 115.04 113.24 111.91 110.98 108.73 108.79 108.48 107.77 106.64 104.8 103.49 102.32 100.37 99.67 96.9 91.37 89.98 89.58 88.97 88.57 88.43 88.2 88.23 88.33 88.41 87.75 88.38 88.31 88.47 88.5 88.39 88.72 88.82 88.82 88.75 88.89 89.13 89.17 89.15 89.56 89.24 89.24 88.83 88.84 89.03 89.43 89.81 90.18 90.42 90.96 91.54 92.55 94.51 95.73 96.36 97.24 98.24 98.91 99.89 101.08 101.76 102.47 102.86 103.48 104.01 104.46 104.94 105.48 105.79 106.17 107.38 107.98 
130.09 127.84 125.84 124.05 121.96 120.1 118.04 116.12 116.76 116.73 115.83 113.82 111.93 112.19 112.15 111.03 108.83 105.93 104.34 102.94 101.8 102.1 102.47 93.19 90.81 89.86 89.19 89.69 88.99 88.36 88.19 88.3 88.44 88.34 88 88.51 88.42 88.52 88.68 88.87 88.79 88.67 88.96 88.93 89 89.13 89.15 89.17 88.97 88.76 89.13 89.17 89.3 89.42 89.54 89.73 89.91 90.59 90.64 91.76 93.89 95.32 96.1 96.98 98.03 98.78 99.42 100.56 101.71 102.24 102.48 103.07 103.89 104.43 104.93 105.58 106.23 106.92 107.96 108.89 
127.84 125.98 124.08 122.49 121.62 121.03 120.21 119.29 119.47 119.07 118 116.07 114.64 114.76 114.12 112.59 111.4 110.52 109.19 107.98 106.08 103.74 106.15 98.44 93.47 90.81 94.02 99.54 91.71 88.75 88.29 88.32 88.36 88.48 88.43 87.85 88.56 88.72 88.49 87.67 88.2 88.24 88.57 88.6 88.72 88.65 88.64 88.63 89.16 89.21 89.24 89.22 89.21 89.27 89.37 89.48 89.59 90.56 90.29 91.75 93.18 94.17 95.23 96.28 97.22 98.1 98.9 99.59 101.02 101.79 102.08 102.7 103.45 104.16 104.73 105.44 106.21 106.97 107.9 108.73 
126.48 125.06 124.25 124.35 124.82 123.92 122.8 122.79 123.06 122.16 120.59 119.24 118.33 117.56 116.01 114.4 113.48 112.6 111.33 110.03 108.26 104.74 107.26 103.91 102.56 96.63 102.47 103.52 95.6 89.77 88.49 88.35 88.41 88.53 88.67 88.08 87.83 88.09 87.85 88.75 88.93 88.28 89.04 88.99 89.02 89.01 89.08 88.93 88.95 89.15 89.35 89.27 89.33 89.29 89.34 89.35 89.57 90.3 90.11 91.47 92.74 93.36 94.19 95.32 96.36 97.24 98.13 99.1 100.11 100.81 101.5 102.22 102.92 103.67 104.42 105.13 106.02 106.88 107.86 108.66 
128.57 128.38 127.83 128.18 128.56 127.74 126.75 125.97 125.19 123.72 122.2 121.46 120.79 119.39 117.7 116.35 115.49 114.5 113.24 112.15 110.34 105.61 108.15 107.58 106.85 102.8 98.93 97.06 94.49 92.38 88.92 88.36 88.49 88.61 88.21 88.51 88.65 88.72 88.82 88.99 88.82 88.05 88.69 88.9 89.29 89.15 89.33 89.42 89.39 89.37 89.22 89.51 89.52 89.41 89.35 89.37 90.1 89.73 90.02 90.86 91.58 92.51 93.39 94.27 95.26 96.21 97.38 98.7 99.54 100.37 101.13 101.83 102.56 103.31 104.16 104.93 105.83 106.78 107.81 108.5 
132.55 132.07 131.41 132.1 132.48 131.81 130.67 129.19 127.5 125.51 124.05 123.24 122.27 120.81 119.24 118.02 117.03 115.94 114.63 113.09 111.52 106.74 110.35 109.38 107.7 105.82 103.14 99.54 97.47 94.24 89.13 88.68 88.59 88.58 88.39 88.51 88.69 88.69 88.83 89.02 88.38 88.17 89.3 88.42 88.83 89.44 89.64 89.56 89.38 89.79 89.72 89.34 89.54 89.15 89.43 89.71 89.73 89.55 89.83 90.04 90.66 91.17 92.24 93.49 94.35 95.54 96.95 98.15 99.09 99.98 100.83 101.53 102.28 103.08 103.93 104.85 105.83 106.68 107.4 108.14 
136.15 135.81 135.45 135.49 135.42 134.49 133.14 131.28 129.17 127.22 125.82 124.61 123.27 121.73 120.18 118.79 117.54 116.26 114.7 113.62 112.91 108.01 111.2 109.81 108.15 106.3 104.05 101.24 98.51 91.87 89.47 89 88.95 88.39 88.91 88.6 88.37 88.71 88.89 89 88.39 88.55 89.14 88.64 89.54 89.63 89.38 89.55 90.27 90.05 89.47 89.87 89.63 89.83 89.34 89.69 89.7 89.6 89.75 89.93 90.19 90.68 91.24 92.53 94.03 95.32 96.61 97.81 98.82 99.7 100.54 101.25 102.01 102.82 103.67 104.67 105.62 106.17 106.94 107.84 
139.45 139.02 138.6 138.13 137.42 136.04 134.44 132.51 130.33 128.55 127.06 125.62 124.33 122.17 120.83 119.16 117.74 116.26 115.12 114.25 113.33 108.91 111.05 109.6 107.96 105.94 103.48 100.66 97.32 90.7 89.98 89.72 89.04 88.54 88.7 88.53 88.43 88.79 88.92 89.1 88.72 89.05 89.15 89.03 89.5 89.65 89.18 90.03 90.43 90.3 90.23 89.27 90.01 89.74 90.24 89.46 89.58 89.62 89.71 89.9 90.11 90.32 90.82 91.78 92.93 94.76 96.16 97.5 98.57 99.42 100.19 100.96 101.71 102.57 103.46 104.41 105.09 105.81 106.63 107.54 
142.26 141.52 140.73 139.75 138.48 136.91 135.04 133.14 131.06 128.82 127.18 125.11 123.08 121.65 120.26 118.83 118.04 116.64 115.41 114.11 112.86 109.61 110.05 108.68 107.44 105.3 102.32 98.84 94.04 89.87 89 89.35 88.79 88.86 88.6 88.48 88.44 88.77 88.87 89.04 89.15 89.33 88.68 89.41 89.52 89.66 89.19 90.08 90.22 90.13 90.19 90.19 89.58 90.28 89.88 90.17 89.62 89.82 89.76 89.75 89.93 90.13 90.5 91.04 91.82 93.63 95.49 96.95 98.13 99.07 99.83 100.68 101.5 102.44 103.25 103.81 104.57 105.42 106.25 107.14 
144.1 142.99 141.78 140.43 138.81 137.07 135.36 133.28 130.9 128.28 125.94 124.74 123.57 121.75 120.62 118.33 116.95 116.22 114.81 113.36 111.86 109.68 108.55 108.14 106.45 104.42 101.6 96.92 91.25 90.18 90.29 89.19 88.86 88.81 88.55 88.48 88.5 88.92 89 89.12 89.24 89.49 89.02 89.49 89.03 89.27 89.53 90.35 90.4 90.33 90.4 90.48 89.9 90.1 89.82 89.8 90.3 89.67 89.83 89.74 89.8 89.97 90.19 90.53 91.02 92.44 94.77 96.2 97.58 98.66 99.52 100.38 101.23 101.95 102.72 103.37 104.1 104.9 105.8 106.72 
145.06 143.41 141.59 140.18 138.45 136.03 133.81 131.79 129.93 126.45 126.23 124.01 122.25 121.57 119.92 117.95 116.96 114.73 113.73 112.88 110.7 108.69 108.34 107.54 105.2 102.97 99.36 93.8 90.56 90.05 90.06 89.48 89.86 89.55 88.85 88.64 88.62 89.1 89.26 89.31 89.55 89.9 89.78 89.68 90.05 90.28 90.6 90.45 90.55 90.57 90.65 90.68 90.62 89.71 90.24 90.14 89.97 90.52 89.51 89.75 89.98 89.86 89.97 90.26 90.6 91.52 93.93 95.73 97.03 98.2 99.18 100.01 100.69 101.53 102.32 102.97 103.7 104.47 105.36 106.28 
144.86 143.06 140.85 139.09 136.59 134.06 131.56 129.76 126.81 125.29 124.13 121.87 121.82 120.92 118.4 117.78 116.06 113.89 113.25 111.33 109.37 108.4 107.91 106.04 103.88 101.89 95.82 91.11 90.3 90.09 89.64 89.77 89.74 90.03 89.96 89.28 88.82 89.31 89.78 89.86 90.01 90.22 90.23 90.45 90.66 90.65 90.63 90.95 91.27 90.96 90.66 90.85 90.86 90.39 90.16 90.43 90.18 90.24 90.74 89.52 89.87 90.08 90.06 90.08 90.42 90.96 92.37 95.32 96.28 97.54 98.58 99.36 100.16 101.07 101.95 102.71 103.41 104.16 104.97 105.78 
143.59 141.82 139.26 136.77 133.96 131.41 129.53 126.89 124.17 123.88 122.27 121.69 120.57 118.26 117.78 117.03 115.49 113.74 112.62 110.62 108.87 108.31 107.17 104.66 102.85 99.11 93.21 90.6 89.92 89.77 89.89 89.84 89.8 89.65 89.83 90.02 89.87 90.02 90.09 90.05 90.24 90.89 91.55 91.4 91.17 91.41 91.47 91.94 91.5 91.57 90.89 90.87 90.99 90.94 90.39 89.93 90.42 90.23 90.16 90.79 89.58 89.61 89.79 89.97 90.42 90.82 91.4 94.54 95.65 96.53 97.59 98.41 99.45 100.61 101.62 102.49 103.11 103.81 104.5 105.18 
140.59 138.35 135.96 133.25 130.87 128.68 126.91 123.7 122.84 123.19 121.46 119.7 118.21 117.62 117.07 115.39 113.41 113.23 111.09 108.52 108.94 107.67 105.06 102.84 100.35 95.86 92.02 90.32 90.12 89.64 89.87 89.83 89.95 89.8 89.74 89.71 89.81 89.9 90.02 90.32 90.77 91 91.56 92.35 93.2 93.25 92.71 92.58 92.45 92.39 92.21 90.93 91.03 91.11 90.95 89.77 90.53 90.52 90.44 90.26 90.97 89.83 90.59 90.56 90.17 90.65 90.98 92.68 95.1 95.46 96.26 97.3 98.83 100 101.05 102 102.73 103.34 103.98 104.61 
135.31 134.91 132.56 130.08 127.9 126.12 123.75 122.56 122.1 122.04 120.51 118.12 117.32 116.9 114.77 113.26 112.4 112.37 109.67 107.58 107.51 106.15 104.4 101.51 98.15 94.1 92 90.44 89.89 89.81 90.08 90.02 89.92 90.03 89.83 89.78 90.04 90.28 90.78 90.86 91.25 91.33 93.14 93.63 93.45 93.35 93.18 93.09 93.15 93.1 92.86 91.86 91.05 91.24 90.9 90.01 90.2 90.64 90.71 90.56 90.32 91.48 91.68 91.36 90.39 90.65 90.89 91.19 93.11 94.91 95.33 96.35 97.88 99.19 100.35 101.36 102.13 102.84 103.45 104.1 
129.03 127.2 126.22 124.96 123.46 121.19 121.38 119.73 117.43 115.89 114.49 114.11 114.97 111.8 111.8 111.71 111.03 110.6 107.61 107.09 105.9 104.97 102.39 99.36 95.55 92.73 91.34 90.91 89.89 89.88 90.14 90.1 90.13 89.89 89.78 90.16 90.61 90.91 91.31 92.48 93.08 93.25 93.35 93.43 94.49 94.82 94.03 93.44 93.53 92.52 92.79 93.12 92.34 91.5 90.73 90.79 90.67 90.32 90.39 90.78 90.6 90.81 91.57 91.83 91.51 91.04 90.83 90.86 91.7 93.71 94.5 95.2 96.59 98.21 99.57 100.56 101.46 102.23 102.93 103.6 
126.32 124.57 122.8 121.01 118.68 116.41 115.86 115.66 116.32 116.38 115.84 113.97 111.09 110.83 111.86 111.57 110.44 108.27 107.4 106.77 105.77 103.59 99.86 97.32 94.89 92.01 90.91 90.59 89.98 90.24 90.13 90.24 90.46 90.23 90.19 90.24 91.14 91.76 93.14 93.5 93.42 93.54 94.84 96.43 98.09 98.53 98.74 96.6 94.03 95.61 93.87 92.46 93.14 91.53 90.77 90.84 90.85 90.66 90.25 90.72 90.9 90.76 90.28 91.15 91.83 91.75 91.11 90.91 91.28 92.21 93.63 94.46 95.5 97.18 98.65 99.72 100.72 101.62 102.34 103.02 
122.01 120.86 119.56 117.89 115.73 114.26 115.04 115.22 115.59 115.81 116.16 115.96 114.65 112.77 109.45 107.88 108 106.59 106.41 106 104.58 102.05 98.94 96.02 93.24 91.31 90.71 90.48 90.42 90.39 90.45 90.52 90.6 90.43 90.38 90.88 91.43 92.5 93.26 93.51 94.09 96.53 99.07 100.77 101.81 102.14 101.54 100.64 96.87 94.1 96.12 94.15 92.59 93.04 91.04 90.91 90.93 90.9 90.59 90.48 91.02 90.97 90.76 90.3 91.17 91.83 91.75 91.26 91.23 91.53 92.52 93.66 94.77 96.07 97.43 98.75 99.93 100.81 101.51 102.07 
117.39 116.31 115.19 113.54 111.76 112.08 112.38 113.26 114.09 114.71 115.03 115.12 114.21 113.26 111.24 108.09 106.24 104.51 103.53 103.26 102.45 100.4 96.76 94.33 91.75 90.83 90.36 90.29 90.43 90.39 90.57 90.79 90.75 90.59 91.07 91.85 92.86 93.32 93.74 94.76 97.49 99.2 100.31 101.9 103.55 104.3 103.71 102.53 100.12 95.18 94.25 93.89 92.36 92.77 92.41 90.97 90.98 90.93 90.62 90.83 90.62 90.97 90.94 90.7 90.56 91.17 91.84 91.86 91.55 91.35 91.68 92.61 94.01 95.17 96.22 97.72 99 99.64 100.08 100.57 
109.99 109.82 109.34 108.92 108.44 108.63 108.48 109.4 111.25 113.83 114.29 114.6 113.75 112.51 111.38 109.12 107.81 105.54 101.55 100 99.89 97.91 95.37 93.16 91.11 90.5 90.88 90.77 90.54 90.63 90.7 91.05 91.43 91.56 92.36 93.21 93.48 94.24 94.65 95.59 97.92 101.59 104.59 107.55 109.62 107.89 105.51 104.1 102.67 98.97 93.97 92.88 90.87 91.36 93.28 91.33 91.05 90.93 90.5 90.9 90.73 90.83 91 90.8 90.75 90.5 91.13 91.97 91.97 91.61 91.51 92.01 93.06 94.55 95.5 96.64 97.72 98.3 98.96 100.14 
108.25 109.36 109.36 106.87 106.07 106.18 106.62 107.39 109.39 112.63 113.44 113.21 112.55 111.8 110.22 109.35 107.57 104.81 101.69 98.33 97.16 95.59 94.78 92.41 90.72 92.73 93.44 91.07 90.68 90.79 90.98 92.19 92.45 92.91 93.23 93.54 93.73 94.7 97.38 102.62 106.46 109.58 112.29 113.73 113.79 112.48 110.3 108.06 105.15 101.86 97.06 93.41 91.44 90.07 92.58 92.38 91.16 90.68 90.85 91.03 91.02 90.59 91.08 91.04 90.97 90.95 90.65 91.16 91.98 91.94 91.78 91.72 92.43 93.78 95.21 95.86 96.54 97.55 99.05 100.77 
106.51 106.52 106.3 105.83 103.88 103.75 103.99 104.04 104.96 107.79 111.15 111.3 110.7 110.26 109.09 108.37 105.71 103.18 100.65 98.06 95.09 96.25 93.33 91.14 91.1 92.78 94.35 92.56 91.01 90.96 91.44 92.99 93.27 93.43 93.53 94.49 96.72 100.1 104.13 107.56 110.59 113.81 116.16 117.86 118.52 116.91 113.29 110.5 107.57 104.94 99.4 93.63 93.17 90.93 92.26 93.24 90.44 90.77 91.08 91.03 91.1 91.02 90.36 91.21 91.11 91.09 90.96 90.87 91.29 92.1 92.11 91.98 92.37 93.18 94.8 95.3 96.05 97.58 99.41 101.14 
102.75 102.73 103.28 103.62 101.9 103.02 103.21 103.14 102.21 103.29 105.57 107.62 107.99 108.59 108.09 107.27 102.2 102.17 99.2 95.31 93.89 93.01 92.23 91.34 91.4 91.33 92.41 93.19 91.85 92.62 93.35 93.29 93.51 93.69 94.92 96.96 100.57 103.97 107.62 110.61 114.17 117.32 120.42 122.54 123.32 122.42 118.5 113.57 109.93 107.29 103.2 95.33 93.74 93.55 93.59 93.64 91.7 91.02 91.06 91.09 90.97 90.99 90.74 90.68 91.27 91.23 91.2 91.27 91.09 91.83 92.43 92.32 92.56 92.76 93.89 94.55 95.48 97.12 99.14 101 
106.54 104.1 103.32 102.02 100.01 100.95 103.05 102.28 101.27 101.4 101.89 102.56 101.89 104.15 105.66 103.32 102.46 100.58 96.99 93.98 93.19 92.1 91.47 91.52 92.1 91.84 91.84 92.93 93.24 93.41 93.5 93.53 93.63 95.12 97.01 100.12 104.42 107.42 110.87 114.6 118.5 122.57 125.92 128.41 129.48 127.56 124.22 119.04 114.05 110.21 105.75 102.03 96.6 94.89 93.89 93.53 93.19 91.03 91.08 91.03 91.08 91.02 91.11 90.8 91.21 91.36 91.36 91.41 91.41 91.54 92.16 92.66 92.55 92.65 93.34 93.85 94.68 96.1 98.03 100.15 
108.44 106.94 106.65 105.41 103.34 99.53 99.24 99.25 99.9 100.88 100.27 99.07 98.96 101.22 100.68 100.9 100.26 97.72 94.17 92.47 92.35 92.35 91.25 92.02 92.61 92.91 93.18 92.96 92.96 93.51 93.84 94.01 95.13 97.08 99.58 104.18 107.04 110.94 115.01 120.05 123.63 127.52 131.64 134.11 135.38 135 131.7 125.82 120.99 115.78 109.39 107.6 102.58 97.11 93.32 92.81 93.87 92.31 91.11 91.08 91.1 91.12 91.19 91.31 90.81 91.46 91.49 91.59 91.62 91.69 91.87 92.08 92.68 92.63 92.82 93.38 93.94 95.18 96.79 98.79 
109.38 108.32 107.25 105.54 103.2 101.47 101.64 100.96 99.11 97.89 99.03 99.02 98.19 97.81 97.2 98.76 97.09 94.7 92.99 92.71 92.97 94.02 92.11 92.6 93.21 93.28 92.58 92.16 92.86 93.98 94.35 95.29 97.3 100.43 105.06 107.01 110.82 114.82 119.63 123.9 128.25 132.86 136.62 139.18 140.4 140.57 139.09 135.26 128.83 121.13 116.2 110.83 107.76 98.64 92.25 91.42 92.55 93.9 92.03 91.16 91.19 91.2 91.25 91.3 91.2 91.07 91.65 91.73 91.83 91.84 91.97 92.03 92.13 92.79 92.78 93.01 93.4 94.73 96.28 97.6 
110.97 109.34 108.49 106.9 105.31 103.99 103.38 103.17 101.81 99.45 97.73 97.78 97.28 95.91 95.63 95.49 95.3 94.35 93.76 93.4 92.74 93.23 93.07 92.81 92.47 92.75 92.4 92.66 93.94 94.31 95.46 97.84 100.52 105.39 108.59 111.63 114.32 119.2 123.34 127.64 132.89 137.06 140.89 143.77 144.88 144.71 143.47 141.75 136.78 128.64 121.48 115.01 111.38 100.92 93.66 91.66 91.47 92.09 93.76 92.31 91.26 91.38 91.17 91.43 91.38 91.11 91.39 91.89 91.92 91.97 91.73 91.74 91.88 92.2 93.13 93.44 93.42 94.03 95.93 97.08 
